# .PCD v0.7 - Point Cloud Data file format
VERSION 0.7
FIELDS x y z intensity
SIZE 4 4 4 4
TYPE F F F F
COUNT 1 1 1 1
WIDTH 70
HEIGHT 1
VIEWPOINT 0 0 0 1 0 0 0
POINTS 70
DATA ascii
20.726847 0.56667417 0.72171891 73
19.115799 -2.918869 0.96977282 67
20.754383 0.70992732 1.0729361 59.5
19.774696 -1.4485887 1.1191641 46
19.652195 -1.7149675 1.2265921 80
20.124018 -0.5780195 1.6745597 91
21.092161 1.4460992 0.96741331 69.5
20.422821 -0.04894745 0.90276021 58
21.508833 2.4324749 1.3224049 65
20.361086 -0.31542933 -0.033179693 62
20.087095 -0.89376682 0.23483719 67
19.851072 -1.4278388 0.32631874 39
19.142336 -2.9790666 0.32839331 93
20.160118 -0.6459204 0.90027452 8
20.269545 -0.29828423 1.3659335 85
20.227844 -0.29350907 2.2660515 59
19.556713 -2.1874247 -0.39175925 69
19.697651 -1.8005173 0.084201835 62.75
19.161413 -2.9467282 0.34225202 42
20.55464 0.22910511 0.88751179 47
19.626944 -1.8442804 0.98183078 82
19.858358 -1.2473708 1.3225887 76
18.724667 -3.7483392 1.3367066 93
21.280859 2.5761914 5.4477353 4
20.087421 -0.90359133 0.066536024 81.599998
19.707308 -1.766265 0.15385395 87
20.194731 -0.66647416 0.16586101 65.5
19.892738 -1.3482902 0.30417708 79
20.279335 -0.45991182 0.32792231 84.333336
19.556648 -2.024843 0.45801017 27
20.522591 0.11723678 0.67856455 57.5
20.922802 0.8075456 -0.61794585 61
19.56391 -2.173908 -0.39190602 69
19.843473 -1.547402 -0.39447919 54
20.100603 -0.96548539 -0.32355568 58.166668
20.095287 -0.89853889 0.019866593 63
19.994772 -1.106311 0.065531082 66
19.651735 -1.7132614 1.2268759 81
20.091547 -0.91906971 -0.059194788 60
20.087011 -0.90729541 0.039712526 66.5
20.152193 -0.78626162 0.015426188 62.5
20.194353 -0.69289446 0.15526757 56
19.983664 -1.1300709 0.20371424 74.666664
19.85498 -1.4202948 0.33573711 92
19.946405 -1.1539271 0.61555177 93
20.078484 -0.87290567 0.68065017 73
19.600197 -1.9275427 0.67160767 93
19.494152 -1.9956578 1.7254741 91
20.290773 -0.51800227 -0.21928026 48.5
20.103992 -0.89607334 -0.069448225 59.599998
19.624054 -1.9754707 -0.024852298 68.5
19.865339 -1.4271497 -0.017975103 62
20.096643 -0.89297187 0.14030507 76
20.419476 -0.15614787 0.28043732 76
19.082819 -3.0899057 0.52831805 86
20.259235 -0.57307893 -0.19200499 68
20.649858 0.30323005 -0.071600564 60
21.092464 1.2828063 0.002736348 69
20.072428 -0.94116914 0.26354408 87
20.009882 -1.074126 0.30630991 79
20.458012 -0.058005959 0.37014252 86.5
20.235704 -0.52014917 0.62976253 82
20.386694 0.31192848 3.5803199 56
20.226351 -0.66824508 -0.17815003 63
20.146233 -0.76448536 0.1232808 84
20.000347 -1.0827185 0.1955594 93
20.252178 -0.54677236 0.25628012 81
19.278774 -2.6755016 0.28140065 3
20.668367 0.85499269 3.1868603 63
20.217752 -0.70231217 -0.263486 66.5
